3.262555142760086846e-01 -3.854636161803240979e-01 -6.405913920868614442e-01
-3.332508030308519165e-01 2.397322704687279982e-01 -1.759194149338177415e-01
3.946205752335784078e-01 4.469596871557266621e-02 2.475783731288624945e-01
-2.698262853500476011e-01 -6.702922019782792118e-01 3.917143756213053440e-01
-3.772515586198929016e-01 -5.154965029400488952e-01 -4.739218571501211952e-01
6.147098388511126332e-01 4.914510555614984288e-01 2.188045787455347724e-01
-5.575197499412268970e-02 1.483376456697227397e-01 8.213707485711944090e-01
1.972455582767498050e-01 7.321495652968792456e-01 -3.000696732828219138e-01
-7.512186315618207821e-02 7.479681693352847605e-01 3.802239381509175398e-01
-8.228920647326849469e-01 1.044704429997933975e-01 1.545615843076205698e-01
-6.038276170274072818e-01 3.287790237275440286e-01 4.627635126178621938e-01
4.922148499181822623e-01 -5.486158829283857008e-01 3.201847413101034934e-01
-2.404020158017483866e-01 9.860112333542396523e-02 -7.698187867920961436e-01
6.425883456152909137e-03 -4.747621878385193117e-01 1.126924368580077412e-01
7.821090662179631670e-01 1.673272549263735975e-01 2.219534981876404023e-01
5.231871762794176178e-02 8.163108991953083038e-01 1.172786463441832620e-02
3.302703311502487304e-01 1.550291269531196559e-01 7.438113705479559856e-01
3.812002873204423103e-01 2.934803589349491704e-01 -6.569345041348834124e-01
-3.435171503525978332e-01 -8.279828523635693327e-02 -3.306119449185566106e-01
-5.043181294925269675e-01 -4.306633896467955136e-01 4.476122856102467407e-01
-5.183106244606362489e-01 5.841391886205067330e-01 -2.169003386990010218e-01
6.575267066155660034e-01 -4.954813310478879407e-01 -4.223476793674293267e-02
7.329406638685140862e-01 -2.515797467053866310e-01 2.906347910343493046e-01
-1.744079311377981223e-01 3.663860101700270322e-01 1.894222054519310861e-01
-6.805253528342450897e-01 -4.521471349707480436e-01 -1.952663038227593351e-01
-5.773067250476234813e-01 1.590944012837150201e-01 -5.940514691077994902e-01
-4.455140404174229990e-02 -3.324744962058523989e-01 -7.380776950989580421e-01
2.592616770890403266e-02 8.841013134651969085e-02 -4.560627480591995520e-01
3.213150846548978867e-01 -7.644932653869754846e-01 3.403045280897368935e-02
2.291700544105458853e-03 -3.494251037871047849e-01 -2.843657153813490823e-01
1.233803162885783178e-01 5.168491365870080401e-01 6.358608177699590636e-01
2.517025147534251439e-01 -5.162970264425378319e-01 6.292509173747389273e-01
-2.318209167164397566e-01 -3.026995005771295974e-02 4.078120467475971345e-01
4.461373732622516686e-01 7.177293120218344313e-01 -4.556990930868482642e-02
6.476714138224308748e-01 6.455329883597886453e-02 5.562676380144352395e-01
-1.860326782314073585e-03 4.137848616614330788e-01 -2.304991323652210156e-01
8.021401343655394367e-01 -7.084166892440788010e-02 -5.894136190358661986e-02
7.349419441573475098e-02 -2.276451363781770987e-01 3.675758106983507689e-01
-2.975633001797062249e-01 7.517144175645111837e-01 1.263782341998433492e-02
-1.654806314595003991e-01 7.354338964201146966e-01 -3.396881656072840983e-01
-1.120639096348921143e-01 -8.344382423010976435e-01 6.577606706062909259e-02
-3.637489639080681014e-01 -1.767479509276985439e-01 7.311727593762991084e-01
-4.021033756576388174e-01 1.529386000292534964e-01 7.130353977625731865e-01
3.415615651866612534e-01 -3.007930900605256253e-01 4.073969792121461680e-02
1.502188553525203585e-02 3.235836151696099838e-01 -7.877870216196302122e-01
-3.345006802541954372e-01 4.558299016383890456e-01 -5.755683485402420807e-01
1.203756082224029592e-02 2.627887156059839982e-02 -1.542444189930148972e-02
-4.663240545186318475e-01 2.929327299897975870e-02 1.169613316765236999e-01
4.473564721638071395e-01 -2.258065583148393396e-01 6.109621127614093261e-01
-6.768460698420405430e-01 4.315266410020058840e-01 7.725832435508381280e-02
-7.568922787390219842e-01 -3.119072325319900418e-01 1.778584871590067895e-01
-4.461819946533983061e-01 6.252691311717589739e-01 2.881396758171432260e-01
5.057441613625023313e-01 5.273956235309013030e-01 -3.929472433882583715e-01
3.181508175870436661e-01 6.899555095762603951e-01 3.339656790967062139e-01
4.788324441630524841e-01 4.041751499797106018e-01 5.249591625440308551e-01
-7.880995627272365800e-01 -9.689671450119406726e-02 -1.727745844121635899e-01
6.524771249266615725e-02 -7.667568209801455259e-01 -2.303001221313602798e-01
6.863938253770456299e-01 -3.016940030855146393e-01 -3.609839592462449342e-01
5.382811868381239817e-01 -4.656238114393324717e-02 -6.279592111782595909e-01
-6.337394409017619301e-01 -2.042583410740495542e-01 -5.177854902903320511e-01
1.423836081915543991e-02 -6.227240795530529782e-01 -5.727832240846502110e-01
-4.920209959256136023e-01 -6.609401457507861899e-01 7.994743993583935948e-02
-7.419867464825107284e-01 2.566204459980288011e-01 -2.680642576349015482e-01
4.040763122972179655e-01 2.104976972928298828e-01 -1.649815270206576034e-01
-3.202796101404180029e-01 -7.329760198396092497e-01 -2.272786033767917324e-01
-2.600236201539403158e-01 4.611380693255858199e-01 5.907607132512578962e-01
3.403009680656256530e-01 -1.308499373870331828e-01 -2.817626826700376785e-01
9.911633677629802519e-02 -1.983687757144718955e-01 8.099661750503094337e-01
9.931747735602791671e-02 1.874480194406295819e-01 4.172954251140651438e-01
7.377533848158671637e-01 4.063241974571336068e-01 -1.021876308804053474e-01
1.604103558010863684e-01 -4.396206357012594906e-02 -7.997339754708899795e-01
2.174087251782576280e-01 4.273786499174761500e-01 1.036442893327847309e-01
-3.419068379666388435e-01 -2.570568273197633147e-01 -7.386581700006532580e-01
-6.716836479592275255e-01 -5.198136093900693894e-02 4.843655667794159458e-01
-1.478851135845805076e-01 -4.783618056577351174e-01 6.528436707760401081e-01
1.182268438677049893e-01 5.938126576606220786e-01 -5.849609632701525674e-01
7.177074680573874987e-01 1.587754580273513239e-01 -3.933932296629837899e-01
4.035343034611867941e-01 -6.122033662110912822e-01 -3.533445368316120438e-01
-3.114489072184036811e-01 -2.986883311327169221e-01 1.577086348400994278e-02
1.164072967095364369e-01 -7.538461188639004051e-01 3.909952695742038853e-01
